# .PCD v0.7 - Point Cloud Data file format
VERSION 0.7
FIELDS x y z rgb
SIZE 4 4 4 4
TYPE F F F U
COUNT 1 1 1 1
WIDTH 1222
HEIGHT 1
VIEWPOINT 0 0 0 1 0 0 0
POINTS 1222
DATA ascii
-51.373058 63.615444 274.9657 7434609
-48.374939 64.056129 275.25681 7500402
-45.637028 63.997669 275.77161 7303023
-43.47842 63.877785 275.76859 7434609
-42.92284 64.059059 275.60254 7500402
-41.255596 63.720081 275.48489 7368816
-40.44413 63.651619 275.38058 11382189
-39.372692 63.639561 275.37775 11776947
-38.578495 63.637173 275.45758 12040119
-37.809464 63.661842 275.65802 10197915
-59.046524 64.874512 275.60632 7566195
-57.361786 64.730469 275.00986 7368816
-56.318329 64.83654 274.72769 7303023
-55.508678 64.495438 274.61374 7237230
-54.780125 64.539253 274.52509 7303023
-53.305424 64.460022 274.5451 7171437
-52.475742 64.244087 274.65137 7237230
-51.371655 64.209198 274.58286 7303023
-50.542301 64.458725 274.52072 7303023
-49.81041 64.40303 274.59576 7303023
-48.637802 64.372665 274.89026 7368816
-47.535011 64.629738 274.86032 7303023
-46.17532 64.719383 275.08875 7303023
-45.636215 64.751945 275.1861 7171437
-44.554462 64.763863 275.27112 7171437
-43.463505 64.753128 275.30798 7303023
-42.91243 64.761795 275.34787 7368816
-41.269905 64.948669 275.24356 7368816
-40.45541 64.671333 275.28494 11316396
-39.384861 64.683632 275.38928 11447982
-38.590073 64.689148 275.48203 11908533
-37.720917 64.639244 275.64771 8026746
-36.541172 64.787811 275.97357 11776947
-7.7627406 65.293617 278.98267 11184810
-59.205112 65.955551 275.23276 7434609
-57.31226 65.609444 274.80569 7368816
-56.058662 65.316139 274.59805 7368816
-55.519958 65.51738 274.45398 7303023
-54.692135 65.446495 274.31262 7237230
-53.310654 65.395378 274.18466 7171437
-52.483849 65.405792 274.17334 7237230
-51.075172 65.401184 274.07504 7237230
-50.526047 65.151146 274.16211 7303023
-46.49588 65.472099 274.46326 7303023
-45.591084 65.620384 274.60382 7171437
-44.513725 65.677788 274.78955 7171437
-43.448895 65.476189 275.07678 7237230
-42.900032 65.735832 275.0654 7303023
-41.275448 65.473869 275.21838 7434609
-40.470612 65.739906 275.33316 11579568
-39.320679 65.662148 275.52335 11513775
-38.608978 65.749557 275.60907 11776947
-37.565346 65.766594 275.80344 6776679
-7.8622141 65.534157 279.01904 11513775
-59.277565 66.631409 275.00635 7368816
-57.159222 66.428139 274.6087 7434609
-54.967216 66.248123 274.24167 7434609
-52.475685 66.159607 273.93655 7368816
-51.333836 66.165619 273.87387 7368816
-46.628765 66.285446 274.02054 7237230
-45.543385 66.359093 274.24127 7237230
-43.409386 66.487267 274.74335 7237230
-42.87904 66.509468 274.86853 7434609
-40.221996 66.548203 275.41299 12105912
-39.165321 66.55481 275.62997 11579568
-38.649902 66.543846 275.72 11908533
-37.576469 66.536758 275.89386 6579300
-59.340439 67.308372 274.72672 7434609
-58.44775 67.324707 274.5668 7434609
-57.175804 67.178894 274.43781 7434609
-53.281494 66.948647 273.8699 7237230
-52.451153 66.95697 273.78503 7303023
-45.501038 67.144661 273.9903 7303023
-43.384651 67.287346 274.59448 7237230
-42.85928 67.309433 274.73807 7303023
-40.239132 67.353493 275.49155 11842740
-39.192516 67.077423 275.70148 11645361
-38.662514 67.346329 275.81564 11842740
-37.59623 67.331039 275.97083 7171437
-61.489578 68.594986 274.57498 7368816
-58.564213 67.935394 274.29251 7500402
-57.185448 67.928329 274.23077 7434609
-56.373585 68.158836 274.07291 7368816
-55.530201 68.134911 274.02161 7237230
-54.675835 68.100418 273.91382 7237230
-53.64119 67.957199 273.76608 7303023
-45.280136 68.388443 273.90625 7237230
-43.720703 68.283676 274.44351 7303023
-42.859303 68.132881 274.73688 7237230
-41.330032 68.700027 275.3703 8026746
-40.279972 68.415459 275.64404 11711154
-39.755306 68.410858 275.76956 11711154
-38.68359 68.130714 275.92044 11842740
-37.618073 68.124512 276.07349 11645361
-33.887909 68.706696 276.61334 6052956
-59.320957 68.09449 273.20642 6052956
-60.443447 68.815369 273.36462 7434609
-59.874722 69.021149 272.98346 7303023
-57.172901 69.415512 273.64316 7566195
-56.36018 69.196579 273.75864 7368816
-55.523033 69.217346 273.75681 7171437
-54.667973 69.211929 273.74146 7237230
-53.807484 69.191521 273.64807 7237230
-45.279259 69.340233 273.91968 7237230
-43.911045 69.494377 274.50793 7368816
-41.360271 69.233566 275.47882 8092539
-40.851608 69.488327 275.72299 12040119
-39.789185 69.204147 275.92935 11908533
-35.481094 69.706245 276.47736 11579568
-34.34877 69.740303 276.48441 11711154
-33.838123 69.49987 276.55377 11250603
-32.300861 69.618156 276.81827 12763842
-57.158279 70.143616 273.29648 7303023
-56.345222 70.231422 273.41208 7237230
-55.502598 70.301659 273.50623 7039851
-54.748611 70.238083 273.59134 7237230
-43.984886 70.874954 274.85269 7303023
-35.471355 70.524467 276.53897 11645361
-34.329449 70.553291 276.48038 11711154
-33.780739 70.569611 276.48776 11776947
-32.709743 70.905731 276.45956 12698049
-32.204201 70.65873 276.59058 12698049
-57.635208 71.010231 272.3522 7237230
-56.303524 71.325279 272.96902 7237230
-55.484211 71.411179 273.2298 7105644
-54.913742 71.486969 273.29398 7303023
-45.207729 71.807732 274.58218 7368816
-44.044235 71.666893 275.08801 7368816
-35.453491 71.323677 276.6051 11579568
-34.291878 71.626526 276.47787 11645361
-33.73996 71.651527 276.42358 11776947
-32.937176 71.685814 276.3743 12632256
-32.108761 71.999008 276.28732 12698049
5.7420855 71.686203 279.21487 6776679
-57.490692 71.667076 271.94006 7368816
-56.263809 72.126762 272.81458 7237230
-55.456203 72.261009 273.20486 7105644
-54.623108 72.367744 273.49414 7171437
-53.798038 72.405022 273.69894 7171437
-49.339489 72.556252 273.8208 7303023
-48.806168 72.58033 273.8479 7237230
-47.148155 72.599609 274.06531 7303023
-45.338421 72.522057 274.76309 7303023
-44.094017 72.43644 275.26883 7368816
-34.278526 72.429749 276.53339 11645361
-33.709625 72.444214 276.41129 11842740
-32.633179 72.494652 276.29709 12763842
-32.074833 72.535484 276.20364 12895428
5.6522799 72.466499 278.93893 6710886
-57.085667 72.352837 272.20157 7368816
-56.43322 72.818504 272.8371 7303023
-53.555317 73.303169 274.26117 7237230
-52.546959 73.243973 274.4848 7368816
-51.360054 73.352005 274.61139 7303023
-50.517082 73.361092 274.49744 7237230
-49.681076 73.377945 274.41217 7303023
-48.577984 73.404694 274.29532 7303023
-47.398125 73.482414 274.49454 7237230
-45.40559 73.293709 275.03131 7303023
-44.132038 72.937103 275.40787 7303023
-34.271049 73.209824 276.63971 11579568
-32.606304 73.304489 276.31146 12763842
-32.048901 73.3526 276.21423 12698049
5.5802307 72.982422 278.78436 6710886
-56.520451 72.405052 272.95215 7303023
-56.085278 73.698128 273.40622 7237230
-54.623806 74.659721 275.44913 7171437
-53.715069 74.427589 275.55612 7237230
-52.627914 74.479012 275.81894 7171437
-51.39901 74.382133 275.73053 7237230
-50.625988 74.30732 275.39459 7303023
-49.874615 74.259903 275.19437 7237230
-48.642838 74.145401 274.85794 7303023
-47.568619 74.118019 274.96869 7237230
-46.463699 74.377556 275.27185 7303023
-45.256435 74.244957 275.44171 7237230
-34.242271 74.226959 277.0567 11447982
-32.585255 74.106354 276.54846 12763842
-32.039509 74.18589 276.48468 12763842
-39.927006 59.40527 277.92093 4473924
-39.505199 59.240822 277.82443 4671303
-39.156811 59.318268 277.40829 4737096
-37.728165 59.300762 277.22079 4802889
-53.28907 60.980633 277.20837 4210752
-51.385738 61.498222 277.47049 4210752
-40.257061 60.060959 277.10464 6118749
-37.665497 59.754761 276.7814 4539717
-36.643867 59.825619 276.95911 4737096
-35.67408 59.9039 277.21783 5197647
-34.748005 60.088158 277.56793 5592405
-33.938789 60.335136 277.99542 7829367
-33.544239 60.443924 278.21982 13421772
-53.556507 61.172947 276.82181 4276545
-50.288254 62.002346 277.19864 4276545
-45.709919 62.333092 277.79755 4079166
-44.146893 61.933517 277.64017 3947580
-40.320854 60.708836 276.57056 11382189
-39.595161 60.471535 276.35233 11316396
-37.3078 60.532589 276.31534 9671571
-36.527771 60.619835 276.4978 11184810
-35.533855 60.744164 276.80618 8487297
-34.585033 60.917717 277.19879 12303291
-33.938457 61.065598 277.52145 8882055
-33.384773 61.013905 277.9567 11053224
-58.32151 62.35767 276.80954 7960953
-56.433098 61.613071 275.92636 7895160
-55.579517 61.38187 275.98843 7171437
-54.424965 61.535778 276.17111 7171437
-51.38158 61.980747 276.57397 7171437
-45.794769 62.554047 277.34781 6908265
-41.43417 61.687912 276.38995 6908265
-40.331718 61.298939 276.1962 13224393
-39.766491 61.414021 275.8642 11776947
-37.149021 61.408909 276.00064 7039851
-36.45092 61.580032 276.18851 10526880
-35.446732 61.71508 276.54144 5526612
-34.495464 61.887024 276.95828 12632256
-34.028862 61.947098 277.17047 10658466
-58.868244 62.911785 276.84207 7763574
-57.987656 62.488049 276.31519 7697781
-56.772732 62.24754 275.65903 7763574
-54.239525 62.114868 275.48187 7631988
-51.381493 62.334167 276.14755 7763574
-50.455566 62.638416 276.06763 7631988
-49.442284 62.896999 276.14191 7566195
-48.342934 63.014469 276.28067 7697781
-44.759079 63.124557 276.48911 7631988
-43.373402 62.784855 276.38553 7631988
-40.870483 62.497143 275.77905 9868950
-36.922482 62.553295 275.79544 8224125
-36.403065 62.626598 275.98676 11250603
-35.400982 62.754265 276.39096 6710886
-34.431168 62.890411 276.81857 12895428
-33.948982 62.954441 276.9957 9737364
-59.475567 63.874943 276.7131 7829367
-56.813519 62.878319 275.34891 7566195
-54.269463 62.758728 275.12424 7566195
-50.525482 63.008785 275.57254 7631988
-49.418957 63.177139 275.76907 7500402
-48.33659 63.275928 275.91019 7500402
-44.746727 63.479218 276.13754 7434609
-43.077145 63.375992 275.8938 7434609
-36.913059 63.399376 275.75085 9671571
-36.395512 63.451611 275.94275 12961221
-35.390537 63.569313 276.35876 6842472
-34.408772 63.68243 276.77628 12171705
-33.935349 63.743046 276.99481 8553090
-7.6034045 64.770607 279.46701 12105912
-56.827049 63.6208 275.08411 7368816
-54.570385 63.466316 274.82571 7368816
-50.516106 63.354546 275.2059 7303023
-49.400547 63.478374 275.38705 7368816
-48.043293 63.658745 275.59247 7566195
-47.477444 63.916527 275.48865 7500402
-46.645386 64.022514 275.60587 7303023
-45.251801 64.304619 275.49191 7171437
-44.723717 63.880489 275.80267 7434609
-41.927975 64.113869 275.45013 7368816
-36.922695 64.259384 275.76349 8158332
-36.38681 64.006622 275.90128 12763842
-35.386536 64.389091 276.34897 6447714
-34.397362 64.481575 276.76575 12171705
-33.926777 64.533913 277.00598 9934743
-32.508545 64.992416 277.60425 12500670
-7.6173391 64.852859 279.30887 12105912
-57.083229 65.013863 274.83939 7303023
-54.284389 64.494255 274.41666 7303023
-46.858849 64.610481 274.99966 7237230
-45.171158 64.999565 275.0108 7237230
-41.87981 65.218391 275.19098 7368816
-38.015266 65.38015 275.60596 10724259
-36.940491 65.416122 275.83862 9342606
-36.420692 65.72123 276.02997 12040119
-35.553947 65.384827 276.29004 7434609
-34.369957 65.543526 276.6936 11645361
-33.879139 65.582336 276.92038 7105644
-32.447323 65.74511 277.50717 13619151
-7.249763 65.426598 279.21445 10921638
6.6960592 66.673935 279.98892 6579300
-58.230446 65.920128 274.92978 7368816
-56.778294 65.783669 274.67776 7303023
-55.940868 65.971077 274.46707 7303023
-54.405403 65.667671 274.1813 7237230
-53.649445 65.798668 274.07269 7303023
-45.037029 66.05114 274.48407 7303023
-42.355648 66.59288 274.96045 7368816
-41.817169 66.362434 275.05081 7368816
-38.03669 66.531311 275.74115 9803157
-36.961929 66.552582 275.95007 8816262
-36.429585 66.561798 276.06406 12171705
-35.382 66.582413 276.34534 6842472
-34.340549 66.612549 276.61664 11842740
-33.832428 66.63784 276.79132 6710886
-32.388603 66.501266 277.39502 13355979
-7.7616901 66.38266 279.23004 11579568
6.7186446 67.783699 279.95856 6710886
-56.767078 66.882553 274.45453 7237230
-55.62426 66.780472 274.29303 7303023
-54.469723 66.67926 274.04544 7237230
-44.957874 67.142853 274.09445 7368816
-42.302864 67.440239 274.85394 7368816
-41.783352 67.495689 275.0097 7368816
-39.145119 67.924469 275.73846 11645361
-38.062286 67.661713 275.90463 9737364
-36.986267 67.673103 276.0827 9408399
-36.442635 67.676254 276.13217 12303291
-35.382919 67.684708 276.36172 7895160
-34.321659 67.699059 276.57034 11513775
-33.801559 67.710518 276.71191 6184542
6.5951099 68.374413 279.94623 6710886
-60.370888 67.201508 274.0463 7631988
-44.912216 68.041992 274.00055 7434609
-42.288097 68.359375 274.93381 7237230
-41.772518 68.413589 275.07806 7500402
-39.161072 68.493904 275.86597 11579568
-38.089527 68.505508 276.0643 11711154
-37.00769 68.507797 276.19687 11645361
-36.45932 68.508034 276.21747 11842740
-35.65403 68.509331 276.34058 11645361
-34.31134 68.516068 276.54816 10592673
-33.781208 68.52713 276.63373 6974058
-32.232101 68.573463 277.04947 12763842
6.6005106 69.090271 279.91882 6645093
-58.377125 67.627007 274.32211 7368816
-60.560036 67.966141 274.37323 7500402
-60.093819 68.33168 273.98547 7566195
-58.124912 68.417686 274.08289 7500402
-43.059982 69.219055 274.776 7368816
-42.284702 68.982552 275.01035 7368816
-41.799076 69.297173 275.28876 7303023
-40.271328 69.609787 275.89868 11513775
-39.19183 69.335754 276.05142 11579568
-38.657387 69.337494 276.15378 11776947
-37.301567 69.336517 276.28912 11711154
-35.664734 69.334259 276.40503 11645361
-34.568703 69.335602 276.47171 11053224
-32.198776 69.113251 276.95212 13158600
-31.633163 69.667801 276.91776 13027014
-31.09441 69.685463 276.99176 12829635
-30.034462 69.749138 277.26041 7500402
6.4742188 69.708031 279.84006 6645093
-58.029453 69.352211 273.61789 7303023
-45.084942 70.40818 274.19629 7303023
-43.853313 70.701927 274.82919 7434609
-43.325375 70.129456 274.88214 7171437
-41.354713 70.451477 275.82968 8355711
-40.578316 70.446648 276.08066 11842740
-39.759384 70.168686 276.13312 11711154
-38.693012 70.162651 276.34756 11776947
-37.34026 70.429436 276.50085 11645361
-34.849125 70.436752 276.50638 11513775
-33.200073 70.446884 276.54962 12500670
-32.659363 70.455833 276.58231 12763842
-31.583672 70.474861 276.72058 12698049
-30.767044 70.494659 276.79749 10921638
-29.973721 70.531158 277 8158332
-28.931778 70.613312 277.28778 10658466
6.4226766 70.596748 279.59229 6710886
-57.870319 70.119865 273.10324 7368816
-45.324512 71.483795 274.45746 7303023
-34.851418 71.53714 276.5517 11513775
-33.179981 71.27092 276.45114 12632256
-31.528471 71.557404 276.45868 12632256
-30.706593 71.566154 276.50406 11382189
-29.716549 71.679169 276.64737 8553090
-28.665293 71.730347 276.91705 12500670
-27.783567 71.978287 277.16669 12566463
-26.752802 72.050385 277.57089 12895428
-26.244959 72.094841 277.77979 13355979
6.3291373 71.228149 279.3924 6645093
-43.508575 72.731789 275.72708 7303023
-35.438591 72.622215 276.8078 11513775
-34.858223 72.626663 276.66882 11447982
-33.166531 72.924263 276.38782 12566463
-31.492073 72.652039 276.24557 12698049
-30.668077 72.654259 276.27689 11908533
-29.577164 72.665039 276.3671 9605778
-28.519911 72.704514 276.64987 12698049
-27.741739 72.757553 276.92606 12566463
-26.709637 72.820107 277.2948 12566463
-26.194418 72.861931 277.49109 12500670
4.5720735 72.657829 279.57687 7039851
-56.024284 72.250534 273.33035 7500402
-55.404068 72.850624 273.52948 7303023
-54.660316 73.104515 273.89359 7171437
-43.576035 73.531815 275.99127 7303023
-33.456791 73.468819 276.52292 12171705
-31.491983 73.480743 276.24524 12566463
-30.664904 73.481598 276.25711 12171705
-29.564932 73.48571 276.28958 11579568
-28.503948 73.520401 276.54755 11776947
-27.726105 73.576393 276.81479 11250603
-26.698622 73.655037 277.17966 12829635
-26.169827 73.689674 277.35565 11908533
4.5296726 73.195038 279.40637 6974058
-55.91349 72.359436 273.47714 7368816
-55.363605 73.572182 274.00543 7171437
-54.647202 73.735497 274.38181 7171437
-45.676094 74.792427 275.57211 7303023
-43.383636 74.29641 276.29123 7171437
-42.649799 74.196686 276.67615 7171437
-42.150677 74.37149 277.01166 7434609
-40.534 74.272461 277.55081 10855845
-37.382874 74.173729 277.78409 11382189
-33.381477 74.193138 276.74493 12303291
-30.787699 74.232788 276.52222 11119017
-29.871834 74.332924 276.51682 8816262
-18.488913 74.840744 278.14084 13290186
-17.382627 74.806519 278.14993 13027014
4.4514422 74.029549 279.17355 6842472
6.0439625 73.701706 278.91345 6645093
-55.304024 73.429703 273.83994 7237230
-49.441109 75.160233 276.17728 7105644
-48.310555 75.209671 276.03763 7368816
-47.436325 75.275436 275.85321 7368816
-45.744732 75.283669 275.83856 7171437
-43.441685 75.064369 276.48697 7237230
-42.705017 74.942322 276.88986 7237230
-41.941689 74.80201 277.33649 8750469
-40.852604 74.732353 277.7453 11447982
-39.743694 74.740295 278.03271 11250603
-38.360157 74.75724 278.21704 11316396
-37.505585 74.802399 278.25519 11513775
-33.22681 75.085754 277.4281 12500670
-32.394821 75.131294 277.29102 12632256
-18.478123 75.433655 277.98355 13487565
-17.362434 75.378952 277.93781 12895428
-41.003925 59.453568 279.15369 4210752
-37.877441 58.740757 278.58521 5000268
-40.430801 59.356915 278.46161 4671303
-39.921909 59.158993 278.28455 4802889
-37.547203 58.912045 278.08621 4868682
-36.712509 59.06715 277.98138 4934475
-35.662575 59.14875 278.11243 5329233
-34.69508 59.322498 278.38974 6316128
-34.039665 59.539452 278.67221 7039851
-33.404964 59.772835 278.99005 13092807
-52.510643 60.647552 278.44223 4210752
-51.659557 60.825905 278.55408 4013373
-39.99752 59.466015 277.80179 4802889
-37.179085 59.26432 277.55383 4342338
-35.045273 59.537212 277.91406 5526612
-34.101574 59.763275 278.26764 6118749
-32.4534 60.328854 279.20074 13816530
-54.626324 60.497242 277.87186 4342338
-51.111855 61.100601 278.30164 4473924
-50.561794 61.221737 278.39636 4408131
-49.713009 61.467037 278.40399 4408131
-45.946178 61.776207 278.75818 4473924
-44.347656 61.314751 278.69931 4408131
-41.677773 60.464962 277.66577 4210752
-40.02129 59.737949 277.4426 7105644
-37.102619 59.575222 277.16946 4539717
-35.936203 59.887787 277.1394 7631988
-34.898384 60.098427 277.47067 7105644
-33.97736 60.126961 277.99731 6316128
-32.609219 60.71265 278.5809 12895428
-32.189137 60.851494 278.84451 12171705
-56.562847 60.819241 277.25055 5395026
-55.652348 60.583588 277.33774 4079166
-54.753971 60.638046 277.40826 4013373
-51.110825 61.355038 277.75241 5460819
-50.55418 61.548008 277.68469 6250335
-49.7215 61.648621 277.97894 5000268
-41.431515 60.879978 277.03967 5921370
-35.810032 60.821503 276.61331 11316396
-34.757408 61.022461 277.00528 9605778
-33.273182 61.59679 277.62332 13750737
-32.628624 61.526024 278.07004 12566463
-58.398071 62.093678 277.64078 7895160
-57.742817 61.640999 277.1398 7697781
-51.107025 61.718472 277.08969 7763574
-50.546822 61.725922 277.36191 7697781
-49.702847 61.985615 277.30536 7763574
-48.60146 62.303844 277.30164 7697781
-45.564293 62.438526 277.34109 7763574
-45.004089 62.378986 277.246 7697781
-43.616474 61.894138 277.30432 7829367
-42.238777 61.791351 276.63885 7895160
-41.140465 61.431339 276.42542 9408399
-35.746155 61.914925 276.29471 11119017
-34.697781 62.099388 276.74384 9276813
-33.212585 62.362034 277.45325 9079434
-32.521168 62.521069 277.82785 12369084
-31.803604 62.91769 278.09839 7829367
-29.341526 63.378571 279.0394 10395294
-7.4844632 64.085556 280.00244 10526880
6.6677852 64.348755 280.68533 6052956
-59.818855 63.612 278.12674 7895160
-47.564198 62.868397 276.77338 7566195
-46.6506 62.925121 276.89743 7631988
-45.540672 62.928802 276.77744 7631988
-42.476822 62.704693 276.05096 7697781
-35.717548 63.08831 276.1387 10461087
-34.676167 63.227524 276.62506 9934743
-33.16711 63.439648 277.29526 10132122
-32.456017 63.56953 277.6636 11974326
-31.727255 63.668842 277.92731 6645093
-30.266518 64.185555 278.5022 8816262
-29.270502 64.090569 278.86935 7763574
-28.217747 64.270355 279.21609 13027014
-26.837801 64.452858 279.54868 13421772
-24.864532 64.82637 279.80478 13224393
-22.781893 64.863632 279.86414 13092807
-21.377937 64.897835 279.88858 13421772
-19.08342 64.890739 279.93777 13290186
-17.308537 64.870918 280.02753 13224393
-7.495791 64.222214 279.87592 11842740
-7.0118084 64.441345 279.70432 12171705
6.7416992 65.020859 280.40009 7105644
-47.117588 63.343777 276.23322 7368816
-45.452705 63.482841 276.16245 7434609
-42.683811 63.534504 275.68726 7434609
-35.726959 63.997898 276.08392 10592673
-34.670513 64.100517 276.49567 12040119
-33.137211 64.257294 277.17123 12237498
-32.411663 64.367653 277.53647 12171705
-31.452417 64.504745 277.94211 10395294
-30.219582 64.681335 278.41144 10197915
-29.20388 64.842094 278.72733 10855845
-28.147182 64.979179 279.03149 12829635
-26.796329 65.107414 279.37842 12895428
-24.80764 65.245468 279.63803 12961221
-22.756344 65.279648 279.67578 13684944
-21.349281 65.307076 279.73004 13421772
-20.795305 65.298866 279.74304 12829635
-20.234091 65.286057 279.72632 12566463
-19.061323 65.296448 279.79428 13487565
-17.312384 65.327209 279.88245 13224393
-8.5315981 64.900757 279.46277 12105912
-8.0447836 64.893661 279.49478 12105912
-7.0156751 64.821869 279.55429 12237498
6.7785306 65.545174 280.27957 6776679
-42.613541 64.483246 275.33856 7368816
-35.756134 64.654694 276.10831 8618883
-34.680237 64.984749 276.43115 10197915
-33.141506 65.120865 277.12347 9079434
-32.637947 65.171478 277.36166 11711154
-31.41954 65.304039 277.86758 10263708
-30.163559 65.451447 278.28702 7697781
-29.147434 65.575264 278.59 9145227
-28.082342 65.690475 278.86444 12303291
-26.729456 65.801468 279.15604 12895428
-24.761904 65.682259 279.47803 13355979
-22.737064 65.931625 279.46777 12895428
-21.325176 65.937439 279.51706 12632256
-20.763655 65.949768 279.53613 12698049
-20.206993 65.963333 279.54694 12961221
-19.051611 65.975914 279.60065 13224393
-17.313763 66.01992 279.71552 12829635
-9.6371088 65.626205 279.35422 11119017
-8.8159933 65.559326 279.26083 11119017
-8.0402813 65.542747 279.29294 11250603
-7.0278726 65.270073 279.49445 11842740
6.7755852 65.990601 280.22998 6710886
9.0809717 66.038086 279.95312 6381921
-42.497105 65.674126 275.0697 7237230
-35.77924 66.186287 276.12875 8750469
-34.710396 66.219391 276.44092 11053224
-33.126072 66.262604 277.00192 9079434
-32.616238 66.290932 277.22144 12040119
-31.451057 66.274284 277.67761 12566463
-30.098684 66.478806 278.11945 8026746
-29.072153 66.577271 278.42154 8947848
-28.004435 66.665657 278.64661 12500670
-26.65304 66.768204 278.90039 12895428
-22.812048 66.814957 279.27829 12698049
-21.296848 66.915962 279.31491 13553358
-19.031288 66.94326 279.40878 13290186
-9.6485958 66.347672 279.24481 11711154
-8.8317261 66.341805 279.23788 11645361
-8.073122 66.283913 279.28342 11513775
-7.0822415 66.51181 279.51343 11579568
6.7653694 67.363129 280.07031 6710886
9.0057478 66.95269 279.86237 6381921
-58.757385 66.469955 274.85559 7303023
-35.815247 67.379692 276.18433 7039851
-34.732559 67.392654 276.41711 10197915
-33.123615 67.112099 276.90613 8947848
-32.094124 67.434326 277.28381 12829635
-30.029902 67.524872 277.89554 7566195
-28.988718 67.59993 278.17706 10526880
-26.587902 67.78009 278.68872 12895428
-22.686583 67.924469 279.12424 11184810
-21.28508 67.685806 279.2312 13553358
-19.025003 67.969978 279.38522 13553358
-7.6811919 67.525314 279.64334 11776947
-58.804798 67.571899 274.87192 7434609
-60.401161 67.526749 274.88101 7500402
-58.705753 67.176559 274.60974 7368816
-35.829525 68.26416 276.24332 7960953
-34.758293 68.567551 276.44464 11447982
-33.117283 68.823853 276.74918 9737364
-32.328098 68.546219 277.02814 13027014
-31.262426 68.820724 277.20541 12698049
-29.962605 68.581711 277.60666 8487297
-28.916685 68.63868 277.90271 10724259
-27.848852 68.975822 278.1297 12171705
-26.540667 68.816772 278.49362 13027014
-22.953745 68.966652 279.04742 11776947
-19.059166 69.303764 279.45358 13816530
-7.7817788 68.247147 279.88287 11842740
-59.763458 67.685364 274.55148 7434609
-38.070179 69.428802 276.23236 11776947
-36.404221 69.441986 276.29626 11711154
-33.115154 69.383202 276.6814 9211020
-32.573509 69.374031 276.80466 12500670
-31.234358 69.362549 277.05466 12698049
-30.45525 69.375595 277.26358 9868950
-29.657646 69.389778 277.44888 9276813
-28.608849 69.442017 277.76636 11382189
-27.821163 69.497063 278.00351 12171705
-26.503019 69.597229 278.35376 12895428
-25.163134 69.694229 278.70139 12632256
-22.950911 69.762711 279.02258 12369084
9.1872721 69.596436 280.30289 6645093
-59.332664 68.021652 274.1777 7368816
-42.716217 70.420555 275.31293 7303023
-42.106228 70.264137 275.49744 7237230
-39.229156 70.58844 276.465 11447982
-38.104893 70.308792 276.46826 11645361
-36.249336 70.405952 276.46472 11579568
-33.117905 69.95784 276.62411 11776947
-32.561211 69.941422 276.68561 12961221
-30.42662 69.90863 277.08572 11908533
-29.353119 70.201332 277.27118 8487297
-28.481096 70.145638 277.56625 13092807
-27.602303 70.38192 277.83167 12566463
-26.468863 70.379356 278.2121 12961221
-25.145754 70.486092 278.59482 12632256
-22.946705 70.554329 278.99527 11711154
9.1076174 70.009361 280.38577 6645093
-43.015648 71.440933 275.57025 7237230
-42.103531 71.483086 275.96979 7303023
-41.125286 71.766754 276.45117 10526880
-40.328117 71.463234 276.48254 11382189
-39.520153 71.46254 276.61996 11579568
-38.514069 71.373222 276.67691 11645361
-37.344872 71.740845 276.80859 11513775
-36.109592 71.340637 276.64514 11579568
-29.307522 71.27179 276.92456 10658466
-28.246717 71.303741 277.24887 13224393
-27.541737 71.426682 277.46338 12303291
-26.417372 71.420944 277.93781 12961221
-22.929991 71.582565 278.84439 12040119
-19.070057 71.626045 279.37714 12763842
-43.022064 72.608879 275.97287 7303023
-42.17923 72.690086 276.38214 7303023
-41.175816 72.642044 276.72281 10658466
-40.393124 72.61515 276.88953 11184810
-39.588043 72.592316 277.01868 11645361
-38.757748 72.30658 276.99036 11776947
-37.396542 72.565193 277.07047 11447982
-35.967407 72.267754 276.81201 11382189
-27.125206 72.40834 277.23318 12434877
-25.572687 72.51757 277.87387 12566463
-24.778002 72.556183 278.09344 12500670
-23.444025 72.621788 278.48239 12566463
-22.61445 72.621506 278.5863 11316396
-21.246042 72.649666 278.83578 11316396
-18.767151 72.634132 279.05753 13027014
-17.382292 72.870674 279.02844 12500670
-14.13714 72.729561 279.47412 12500670
-12.587773 72.560974 279.7446 12698049
-11.106645 72.338577 280.09528 11316396
4.3940358 72.608391 279.92429 6908265
5.557723 72.651024 279.26181 6842472
6.2075763 72.544113 279.39255 6645093
-42.960514 73.893806 276.41592 7237230
-42.262741 73.833282 276.76245 7171437
-41.259773 73.752281 277.14685 10724259
-40.47953 73.695274 277.34158 11053224
-39.670914 73.666725 277.44839 11513775
-38.569145 73.653236 277.48181 11447982
-37.465885 73.642754 277.51114 11447982
-35.505901 73.923126 277.23843 11579568
-34.927025 73.928375 277.04434 11513775
-27.070078 73.46978 276.93512 12171705
-25.519966 73.57222 277.58597 11119017
-24.723885 73.61277 277.78665 12829635
-23.654451 73.65535 278.03784 12500670
-22.558573 73.664841 278.17624 11250603
-21.191381 73.682976 278.39014 11513775
-20.087358 73.686035 278.44699 12763842
-18.707138 73.675529 278.53955 13355979
-17.337566 73.65181 278.62103 12763842
-16.521441 73.641212 278.7085 12829635
-14.621942 73.860733 278.93387 12434877
-14.103118 73.565674 279.15079 12369084
-12.594942 73.409378 279.58072 12566463
-11.127129 72.871574 280.08124 11382189
3.8245995 73.500771 280.3923 6908265
4.5542264 73.301765 279.67902 6776679
4.9078603 73.41143 279.3353 6908265
5.5133181 73.464012 279.09671 6842472
6.1144214 73.240662 279.39655 6579300
-42.073402 74.621201 277.14017 7368816
-41.323879 74.527145 277.45624 10790052
-40.544998 74.458771 277.71359 10921638
-39.736618 74.423599 277.88031 11316396
-38.632786 74.4161 277.94592 11382189
-37.796726 74.421173 277.93576 11447982
-35.536919 74.465096 277.54523 11579568
-34.966675 74.467957 277.36539 11513775
-31.548605 74.391373 276.58624 12632256
-29.275442 74.289688 276.55933 9342606
-28.436199 74.283112 276.72592 11974326
-27.366749 74.300735 277.03732 11119017
-26.314089 74.353516 277.39001 12500670
-25.529955 74.411522 277.64359 11974326
-24.726736 74.449928 277.80121 12632256
-23.378471 74.505241 278.05417 12763842
-22.54059 74.495644 278.05362 11382189
-21.165543 74.517616 278.18723 11776947
-20.05485 74.511261 278.1882 12369084
-18.671213 74.503098 278.22916 13224393
-17.290306 74.485733 278.25595 12763842
-16.473312 74.482315 278.35455 12829635
-14.861027 74.449043 278.63785 12500670
-14.071286 74.426582 278.84885 12500670
-12.580272 74.248657 279.40692 12632256
3.815753 73.91938 280.4068 6974058
4.5787792 74.064293 279.58728 6710886
4.9326501 74.132675 279.33423 6842472
5.468308 74.25843 279.00632 6710886
-41.373974 75.019928 277.702 10921638
-39.784748 74.902603 278.2186 11250603
-38.783184 75.05825 278.47015 11382189
-35.580833 75.230049 278.23761 11447982
-35.015144 75.256828 278.05057 11382189
-33.886089 75.280235 277.7291 11776947
-31.443504 75.35054 277.35654 12566463
-30.489407 75.219078 277.16953 7105644
-29.552809 75.296082 277.19165 8092539
-28.517094 75.182388 277.1973 11842740
-27.44154 75.206055 277.46301 11447982
-26.378321 75.263245 277.72421 12369084
-25.582039 75.314247 277.91287 11316396
-25.043278 75.334671 277.98962 12632256
-23.398108 75.377724 278.16656 12434877
-22.547232 75.349678 278.09512 10855845
-21.156607 75.354965 278.11432 11184810
-19.758156 75.334648 278.06693 12303291
-18.923542 75.325317 278.03763 13290186
-16.427637 75.300545 278.03568 12698049
-14.819758 75.296928 278.34583 12434877
-14.053415 75.290108 278.63727 12369084
-12.727948 75.271988 279.20776 10987431
3.8353422 74.592712 280.4552 6776679
4.5983973 74.811928 279.66238 6842472
5.3128161 75.225098 279.22906 6710886
-41.985134 59.550419 280.38199 4079166
-42.121056 59.640072 280.22287 4539717
-41.421803 59.326099 279.9928 4605510
-37.432449 58.674656 279.3421 4408131
-36.899612 58.800888 279.44656 4671303
-35.823956 58.912754 279.54559 5197647
-34.796059 59.052761 279.67422 5789784
-54.182556 60.153942 279.53421 4079166
-53.345524 60.169701 279.6535 4144959
-44.525669 60.874569 280.07538 4539717
-41.864578 59.68359 279.48764 4539717
-36.1586 58.955158 278.74948 4737096
-35.168903 59.145782 279.25754 5460819
-32.632568 60.102554 279.71176 13684944
-32.356068 60.019585 280.12274 13487565
-29.816879 60.982738 280.74039 14079702
-28.760822 61.458565 281.06281 11908533
-55.607197 60.315323 279.1579 4276545
-50.274731 60.865433 279.63968 4408131
-49.701103 61.048119 279.75522 4473924
-41.628529 59.892368 278.6174 4802889
-29.533836 61.483585 280.34372 11842740
-28.514008 61.830151 280.73453 12566463
-49.1623 61.365025 279.2684 4013373
-44.173656 61.069851 278.93945 3881787
-43.650784 60.913471 278.73776 3947580
-42.569393 60.603645 278.23615 4079166
-41.49337 60.328091 277.77914 5131854
-31.633905 61.190094 278.91623 8882055
-29.335699 61.931786 279.98962 9276813
-28.330996 62.252731 280.36679 13092807
-59.208408 62.711948 279.67645 7237230
-58.252743 61.715042 279.09097 6710886
-57.849228 61.35944 278.81766 6710886
-49.157234 61.505451 278.70325 7105644
-48.309521 61.796928 278.66782 7763574
-46.920559 62.118881 278.92145 7763574
-45.584812 61.724499 278.44852 7763574
-44.187481 61.305088 278.5379 6052956
-43.299942 61.213497 277.9819 6645093
-42.592274 60.943321 277.79358 6184542
-31.325491 62.002209 278.64514 10987431
-30.136875 62.2477 279.25848 10132122
-29.179905 62.489624 279.64252 10000536
-28.176779 62.744308 279.99698 13816530
-17.400503 63.663708 280.82599 13092807
-7.4351063 63.418831 280.7948 10987431
-6.9205132 63.574066 280.7825 10790052
4.1608462 64.224693 281.77069 4671303
6.676724 63.702415 281.33121 1710618
-59.857475 63.736931 279.87888 7960953
-48.012035 62.011658 278.30487 7895160
-47.405186 62.256084 278.18289 7829367
-46.889854 62.253284 278.46921 7697781
-43.098389 61.750511 277.19562 7763574
-30.915129 62.987328 278.49161 10132122
-30.001513 63.187416 278.91309 11119017
-28.517138 63.448326 279.40176 13882323
-27.765362 63.60759 279.67545 13224393
-26.754623 63.600697 280.10529 13553358
-25.605478 64.126328 280.07755 13619151
-24.753397 64.184685 280.16055 13421772
-22.755068 64.233231 280.2243 13290186
-21.348139 64.244698 280.27441 13355979
-20.513062 64.258591 280.27863 13158600
-18.809053 64.279892 280.323 13684944
-17.364908 64.122169 280.46646 12961221
-13.980374 64.183823 280.64697 10921638
-11.23215 64.225327 280.37656 13290186
-9.5902262 64.112122 280.20416 11908533
-8.7536936 64.071335 280.15295 11974326
-7.9555397 63.888145 280.27475 11184810
-6.680243 63.962856 280.37656 11382189
4.0451794 64.531624 281.60898 7237230
8.2704124 64.413818 280.59622 7171437
9.142045 64.379395 280.80682 7039851
-30.864853 63.786114 278.29144 10329501
-30.353165 64.380974 278.34286 11974326
-28.404686 64.39534 279.07053 13421772
-27.398367 64.564957 279.40771 12895428
-25.512232 64.736252 279.72437 13224393
-24.11401 64.802849 279.83807 13092807
-23.558392 64.832817 279.89453 13290186
-21.863401 64.844574 279.90945 13487565
-20.487036 64.640327 280.05911 13421772
-19.632198 64.866905 279.9631 13092807
-18.491247 64.889946 280.02167 13290186
-17.922596 64.901909 280.03894 13290186
-16.479237 64.940186 280.13898 13027014
-15.35192 64.987556 280.25055 12171705
-14.529546 64.990082 280.26361 12237498
-13.803747 65.026543 280.19653 11645361
-12.611925 64.888954 280.12091 12369084
-11.413963 64.875458 279.96478 12171705
-9.5553751 64.705299 279.82761 11908533
-8.8105135 64.598656 279.78214 12105912
-7.9139671 64.470718 279.90997 12171705
-6.2695079 64.701851 279.99789 12105912
7.252049 64.836624 280.49435 6842472
8.3009157 65.034767 280.3302 6645093
9.2877216 65.036995 280.37549 6842472
11.149754 65.417374 280.70157 5921370
11.536658 65.496674 280.86603 2565927
-30.342037 65.23365 278.16708 11974326
-29.332954 65.315659 278.50928 7237230
-28.335968 65.440666 278.82773 13487565
-27.292019 65.519295 279.04639 12763842
-25.431097 65.667908 279.38461 13553358
-24.586092 65.933853 279.35645 12698049
-23.490099 65.720123 279.49289 12829635
-21.817627 65.744812 279.5506 12566463
-19.586132 65.775475 279.62692 13092807
-18.461676 65.811562 279.6947 13355979
-17.898466 65.818459 279.71994 13224393
-16.488785 65.863113 279.84048 13224393
-15.361997 65.912231 279.95682 13224393
-14.53355 65.886467 279.92404 12171705
-13.807045 65.786652 279.91736 11908533
-12.599448 65.784897 279.72498 12961221
-11.487284 65.748215 279.64941 12632256
-10.078138 65.693726 279.51068 11316396
-6.2544041 65.742271 279.85989 11316396
8.3136806 65.975563 280.0806 6316128
10.018667 66.043747 280.28384 6513507
11.185265 66.134811 280.59161 5723991
11.833344 66.186989 280.78204 2368548
-30.327906 66.081924 278.01447 10987431
-29.314999 66.14872 278.3396 13816530
-28.276894 66.213844 278.61243 13487565
-27.238642 66.280754 278.83554 12763842
-25.379082 66.401009 279.13733 12763842
-24.556442 66.42392 279.19397 12632256
-23.451286 66.447403 279.24973 12698049
-21.790648 66.489616 279.35196 12632256
-20.403494 66.524734 279.43478 13553358
-19.567198 66.536308 279.46472 13092807
-18.451632 66.561684 279.53076 13553358
-17.334448 66.590897 279.62289 14869218
-16.493853 66.620544 279.69125 13224393
-15.368109 66.63427 279.77545 11250603
-13.986445 66.613914 279.72723 10329501
-12.592896 66.551353 279.57257 12961221
-11.475177 66.525391 279.50366 13224393
-10.062506 66.491501 279.37787 11842740
-6.2719898 66.541435 279.91541 11382189
8.3135853 66.725182 279.95273 6579300
10.024675 66.797234 280.21844 6184542
11.216541 66.848167 280.49713 5460819
11.85745 66.888596 280.70456 2368548
-32.385574 67.255905 277.15387 13224393
-31.005657 67.044128 277.62515 12763842
-30.322586 66.959694 277.85199 11776947
-29.293758 66.986336 278.18188 7697781
-28.259233 66.748207 278.48694 13553358
-27.380106 67.156197 278.60257 12632256
-25.343157 67.175156 278.96426 12829635
-24.527836 67.199783 279.02304 12698049
-22.334314 67.004532 279.241 12303291
-21.775888 67.283958 279.23914 12434877
-20.388002 67.308495 279.30338 12698049
-19.555876 67.328339 279.35614 12961221
-18.444002 67.355019 279.43338 13882323
-17.331076 67.387238 279.52823 13684944
-16.400999 67.323456 279.61423 12698049
-15.464775 67.34034 279.71362 11250603
-13.985318 67.395119 279.6217 11316396
-12.311486 67.357864 279.50037 12303291
-11.375191 67.24807 279.44159 12566463
-10.622498 67.606308 279.384 11974326
-9.5045471 67.324745 279.37271 12040119
-8.6788845 67.329613 279.43179 11974326
-7.8680944 67.334564 279.54456 11842740
-6.8594131 67.614136 279.95285 11842740
9.3443727 67.757004 279.97714 6316128
9.8084154 67.502121 280.05359 6645093
11.866643 67.341957 280.64999 2434341
-59.010044 67.118317 275.12509 7500402
-32.971249 68.183922 276.84689 8882055
-32.420834 68.166069 277.04956 12237498
-31.105322 68.135674 277.39496 12632256
-30.325422 68.114769 277.59344 11382189
-29.272678 68.093109 277.89062 11908533
-28.227938 68.115608 278.19766 12763842
-27.434536 68.137627 278.37488 12632256
-25.312664 68.245659 278.77725 12829635
-24.501835 68.27977 278.86987 12698049
-22.313242 68.633942 279.07968 11382189
-21.488352 68.383286 279.17035 12434877
-20.382708 68.412323 279.2562 12632256
-19.552546 68.43409 279.3244 13027014
-18.629107 68.556442 279.41565 13816530
-17.331936 68.484749 279.50119 12961221
-16.219189 68.508621 279.60254 12895428
-15.659788 68.239075 279.63992 13092807
-13.992961 68.497452 279.64407 12040119
-12.327646 68.472992 279.58606 12698049
-11.198972 68.180923 279.50079 12434877
-10.468961 68.551392 279.56168 11645361
-9.5456886 68.451538 279.57733 11447982
-9.0121622 68.453011 279.66968 11711154
-6.9575362 68.416298 280.24628 11908533
9.3170147 68.561035 280.07245 6381921
10.021367 68.581223 280.1824 6513507
13.89702 68.25737 281.4671 1447446
-59.508831 68.063049 274.8078 7500402
-60.668785 68.016548 275.61957 7500402
-30.320026 68.949638 277.38583 9934743
-29.263266 68.920158 277.63824 10461087
-28.217558 68.929787 277.96857 13882323
-27.141722 69.228836 278.18314 12698049
-25.379082 69.240318 278.64618 12895428
-24.490438 69.389297 278.79916 12698049
-23.405558 69.709152 278.9082 12763842
-22.31279 69.479851 279.078 10329501
-21.489824 69.50853 279.17657 11447982
-20.386393 69.541611 279.28906 12698049
-19.557125 69.285408 279.36935 13224393
-18.635988 69.680756 279.46799 13487565
-17.341543 69.606682 279.55728 12434877
-16.224405 69.611397 279.61691 12566463
-14.560715 69.614014 279.74164 13092807
-14.012391 69.608658 279.7648 12698049
-12.359716 69.589043 279.77551 12763842
-10.434691 69.562439 279.81992 11645361
-9.6317825 69.547737 279.92303 11447982
-7.5835094 69.464806 280.42609 11513775
-7.1025906 69.42144 280.66138 11776947
4.0201826 69.671799 281.17749 6974058
5.7263546 69.869522 280.01215 6776679
6.2429018 69.859947 279.9881 6645093
9.2649097 69.662453 280.29431 6447714
10.012223 69.559425 280.39856 6381921
13.996374 69.319153 281.50522 986895
-27.120131 70.061813 278.00153 12566463
-25.535322 70.437187 278.46088 12961221
-24.210489 70.518181 278.75772 12961221
-23.402748 70.556427 278.89639 14013909
-22.311634 70.603851 279.06329 10790052
-21.491482 70.63681 279.19073 11250603
-20.390551 70.669418 279.32529 12829635
-19.562563 70.688934 279.4144 13224393
-18.73238 70.704933 279.49194 13092807
-17.34499 70.714249 279.56631 12566463
-16.602324 70.623535 279.61713 12895428
-15.131001 70.446365 279.76553 12829635
-14.582443 70.715652 279.80338 12829635
-14.036448 70.708549 279.84451 12632256
-12.392972 70.671486 279.91602 13158600
-11.838378 70.397575 279.91635 13158600
-10.510048 70.620293 280.09406 11711154
-9.6988888 70.331261 280.15033 11842740
-7.7308388 70.4356 280.84564 9803157
-7.1959562 70.153145 281.01486 11842740
3.8818924 70.291489 281.22653 7105644
6.2399535 70.652679 279.90341 6645093
9.215909 70.690567 280.53992 6381921
9.8604822 70.779449 280.76123 6316128
-27.081326 71.175621 277.6962 12632256
-25.24803 71.276848 278.40482 12763842
-24.191494 71.34568 278.64471 12829635
-23.396446 71.394493 278.84689 12698049
-22.30113 71.434471 278.99213 11645361
-21.483553 71.466637 279.12579 11711154
-20.382385 71.495476 279.2594 12895428
-19.554367 71.51046 279.34137 13224393
-18.445524 71.521736 279.41403 12895428
-17.335775 71.52729 279.46777 12632256
-16.780613 71.529366 279.50162 12961221
-15.12654 71.529694 279.69388 12763842
-14.575812 71.527504 279.74124 12566463
-14.037919 71.522522 279.77219 12434877
-12.397932 71.477089 279.90817 12500670
-10.54576 71.411674 280.21475 11645361
-7.8207488 71.174377 281.07718 10855845
6.2178516 71.464844 279.7709 6645093
9.1943588 71.430336 280.60355 6381921
9.5073957 71.434776 280.86899 6447714
-38.224957 72.57328 277.11105 11579568
-36.563599 72.494537 276.91736 11513775
-25.226555 71.824966 278.25314 12895428
-24.069777 72.083443 278.47018 12566463
-23.37825 71.944756 278.72684 12763842
-22.278866 71.983093 278.83554 9934743
-21.552877 72.186958 278.93433 10855845
-20.35413 72.300903 279.03244 12895428
-19.532721 72.321411 279.15543 13816530
-18.430389 72.061111 279.28494 13224393
-17.30621 72.337997 279.2424 12500670
-16.47724 72.344582 279.30493 12698049
-15.103188 72.3508 279.4751 12763842
-14.5552 72.35067 279.54974 12632256
-14.020288 72.344208 279.62991 12434877
-12.399702 72.306007 279.86389 12566463
-10.576828 72.190224 280.28268 11447982
-7.8975277 71.88427 281.2774 8487297
4.0601215 72.162079 280.65622 6974058
4.6773024 72.518936 280.01318 7039851
5.4353991 72.251953 279.85172 6842472
6.2046289 72.263069 279.75195 6710886
9.195653 72.152992 280.60297 6316128
9.4852257 72.15583 280.93655 6381921
-38.830669 73.445366 277.39435 11579568
-38.297619 73.391418 277.46655 11513775
-36.109272 73.604721 277.27051 11447982
-23.845583 72.991386 278.24774 12698049
-21.680061 73.341949 278.49066 10855845
-20.386786 73.285103 278.59573 12895428
-19.470585 73.394035 278.65536 12369084
-17.778879 73.69104 278.59674 13355979
-16.433659 73.170784 278.99255 12829635
-15.315432 73.461449 279.00925 12829635
-14.495702 73.46769 279.14917 12632256
-13.407052 73.743248 279.32587 12566463
-12.889232 73.446533 279.52527 12566463
-10.351933 73.251976 280.38602 11579568
3.350949 73.126915 281.15375 6974058
4.6559343 73.06778 279.94183 6908265
7.2226057 73.538567 279.98727 6513507
9.1302128 73.066605 280.76779 6447714
-36.237404 74.977684 278.09348 11447982
-23.782766 74.528748 277.9437 12369084
-21.634829 74.357307 278.16653 10724259
-20.512997 74.382736 278.18781 13092807
-19.406696 74.415825 278.22739 12369084
-17.724659 74.473366 278.23639 13224393
-15.331175 74.472313 278.55124 12763842
-13.355187 74.595261 279.08466 12566463
-12.842655 74.583305 279.30084 12500670
-10.876442 74.420959 280.21609 11316396
6.1808243 74.253059 280.38162 6579300
7.1798334 73.955551 280.18457 6513507
9.034132 73.759422 280.92578 6316128
-36.292927 75.756332 278.75089 11382189
-24.072767 75.357727 278.06622 12434877
-21.618393 75.404556 278.10413 11119017
-20.488926 75.412605 278.03812 13158600
-17.678392 75.48439 277.9982 13224393
-15.437847 75.618805 278.13928 12698049
-13.31094 75.710953 278.90344 12632256
-12.824892 75.425453 279.22824 12500670
-10.946163 75.560455 280.36383 11382189
4.8685327 74.901978 280.75906 6842472
5.5734 74.237282 281.01947 6645093
6.1055207 74.191437 280.99283 6645093
7.8627324 75.126984 281.02176 6447714
-36.702446 58.649815 281.47162 5000268
-42.566238 59.566612 281.21884 4671303
-41.531406 59.187233 281.01733 4802889
-37.106522 58.643837 281.01648 5000268
-36.452179 58.64851 280.67883 4737096
-35.683205 58.744816 280.9205 5526612
-34.642426 58.965012 281.06024 5526612
-33.561943 59.258198 281.09152 8816262
-29.910637 60.621403 281.94489 13948116
-52.24683 60.164104 281.17868 4079166
-44.729187 60.673985 281.48386 4539717
-42.674572 59.648781 280.9614 4473924
-41.6273 59.266266 280.70779 4737096
-32.646107 59.653469 280.98306 13355979
-29.222256 60.971771 281.8988 12566463
-56.217167 60.40432 280.77139 4342338
-55.05592 60.212406 280.94614 4144959
-51.39793 60.372429 281.01962 4210752
-46.606518 61.072971 281.13016 4473924
-43.888748 60.341473 280.65756 4605510
-42.821468 59.809853 280.44135 4605510
-41.71426 59.345745 280.30676 4737096
-31.463196 60.397152 280.90256 13750737
-30.513992 60.731224 281.18906 14145495
-29.923 60.983826 281.16873 14145495
-29.013699 61.243011 281.58389 14013909
-27.883844 61.659424 281.70663 14145495
-27.339611 61.84679 281.84525 14145495
-59.164989 62.273682 281.10632 4408131
-58.757538 61.718449 280.86371 4671303
-57.921089 61.088013 280.56815 4539717
-56.967216 60.458714 280.54459 4342338
-49.437981 60.982307 280.75409 4539717
-48.59341 61.305206 280.76956 4210752
-44.48571 60.729843 280.50201 4408131
-43.661934 60.39513 279.96967 4144959
-42.91806 60.085167 279.79269 4408131
-31.063154 60.914627 280.2453 8816262
-30.154119 61.197025 280.56323 10526880
-29.683422 61.341541 280.71432 8882055
-28.694637 61.61116 280.99088 10395294
-27.68277 61.924145 281.28171 11382189
-26.896843 62.17004 281.5094 11711154
-19.226469 62.736362 281.84283 12105912
-18.639952 62.735294 281.84485 11053224
-17.498787 62.649097 281.94299 12040119
-7.4385405 62.812214 281.8631 7763574
-6.8728528 62.848423 281.92218 7434609
4.0583167 63.40604 282.56815 1644825
6.6886101 63.070709 282.09677 2565927
-59.062336 62.24321 280.83408 6710886
-48.572815 61.397705 280.20792 6184542
-47.408848 61.760719 280.20316 6974058
-46.089199 61.270065 280.03186 6250335
-45.590549 61.216694 279.93454 6118749
-30.775082 61.384399 279.65485 9013641
-29.371145 61.922939 280.03345 8684676
-28.437542 62.21207 280.38791 11842740
-27.459383 62.477112 280.70532 13158600
-26.69879 62.677162 280.94131 13553358
-24.760071 63.085957 281.09958 13487565
-22.541122 63.029366 281.36084 13290186
-19.157803 63.0774 281.40704 14013909
-18.589531 63.070202 281.39795 13553358
-17.454859 62.960094 281.56039 13553358
-16.868572 63.259438 281.31631 14013909
-14.051886 63.255207 281.61176 11842740
-11.269694 63.325672 281.41693 12500670
-9.5981579 63.220898 281.29855 10921638
-8.7550354 63.187943 281.25729 11119017
-7.9349155 63.023788 281.37344 10987431
-6.4645987 63.06234 281.52509 10987431
-3.5434551 63.637161 282.20035 2829099
-2.5585694 64.033897 282.52524 4934475
-1.5652686 64.318481 282.85049 4079166
2.9694641 63.979237 282.46011 4868682
3.7194448 63.659744 282.37952 2763306
4.5987535 63.800682 282.05316 4802889
5.4825988 63.560299 281.91006 3684408
6.1869845 63.592598 281.71265 4473924
7.2610607 63.494938 281.58844 4605510
8.5040646 63.355705 281.61459 3815994
9.3118811 63.616226 281.67206 5000268
-30.124067 62.345009 279.29343 12369084
-29.230427 62.549217 279.64963 8816262
-27.322153 63.040112 280.31726 13027014
-25.519239 63.356842 280.73145 13421772
-24.421385 63.413239 280.80658 12829635
-23.027838 63.452198 280.85773 12895428
-22.469738 63.471844 280.88367 12829635
-21.35022 63.493172 280.91202 12961221
-20.511816 63.516037 280.94287 12961221
-19.105455 63.511921 280.9371 13487565
-18.545485 63.529533 280.96091 13290186
-17.981682 63.519211 280.94797 13158600
-16.576056 63.576241 281.02533 12698049
-15.168912 63.648277 281.12073 9737364
-14.608217 63.667946 281.1427 11908533
-13.490729 63.668079 281.15094 12040119
-12.65134 63.636425 281.11761 12040119
-11.247574 63.591145 281.0621 11908533
-9.5550327 63.507889 280.93674 10790052
-8.7048702 63.468891 280.87662 10921638
-6.1987844 63.550144 281.00818 10329501
-5.1245694 63.735256 281.32794 10066329
-3.5192428 64.040932 281.86044 7105644
-2.6583893 64.222984 282.17743 7631988
-1.5451308 64.489258 282.539 7566195
2.9632506 64.419357 282.34683 7237230
4.5997086 64.141006 281.86032 7237230
5.3892126 63.989403 281.62897 7303023
6.1881967 63.861252 281.42862 7303023
7.2880754 63.769207 281.28848 7105644
8.6691999 63.727226 281.22406 7171437
9.8951168 63.969467 281.49515 7303023
11.042521 64.243332 281.81982 7105644
-30.031063 63.08675 278.95581 12105912
-29.118849 63.244659 279.31839 6842472
-24.089523 63.7799 280.53036 13224393
-23.537575 63.803734 280.55847 13290186
-21.865963 63.8172 280.57504 13290186
-19.626223 63.853428 280.62076 13421772
-17.958694 63.873692 280.64859 13882323
-16.567783 63.92865 280.72504 13355979
-15.449798 63.994267 280.82376 13290186
-14.606423 64.010498 280.8475 11316396
